# 3D point list with one line of data per point:
#   POINT3D_ID, X, Y, Z, R, G, B, ERROR, TRACK[] as (IMAGE_ID, POINT2D_IDX)
# Number of points: 367, mean track length: 6.1770350404312673
8402 1.149626245660037 -0.064540237614665485 4.5014162239134405 36 40 39 1.2530116114138965 61 1729 63 827 65 868 57 1044
8401 0.30574270083532673 -0.54574619131258539 5.4114896954923477 204 196 189 1.7865444661212766 56 1126 57 870 63 821
8399 0.98211892606422091 -0.5579343169223957 4.9403565817059576 151 173 161 0.44514861350669577 57 872 63 815 65 363
8398 0.10471827158430166 -0.5074320328150369 5.3661642333238291 198 183 176 1.49957960065832 56 1069 63 814 61 944 64 413 67 202
8397 0.084540843834626622 -0.49054555810052519 5.7648137507874253 215 206 199 0.16003855547926168 56 1073 57 860 63 806 65 680
8396 -1.8493117912725059 -0.22918779555351138 5.7218656597172828 161 160 165 2.1217848548556155 56 1436 57 910 61 1792 63 805 56 645 65 704 65 709 66 444 73 575 68 419 72 352 69 189
8395 -0.11538067289482484 -0.42988307490333549 5.3210818279975216 170 156 99 1.1593269408114744 57 859 59 1292 60 1244 63 804 61 1239 65 475 64 404
8394 0.65142804426756751 -0.49514723445592373 4.933712663425097 197 198 193 1.4281000291854897 57 850 63 803 56 1431 65 364
8393 -0.1938546050343373 -0.46502624702850509 5.3437530032267526 49 38 21 0.72478573803354573 56 1068 60 1411 61 1294 63 802 56 1071
8392 1.0662225002546246 -0.66486303221080312 5.023805214663529 70 81 73 0.56585860923971754 60 1333 63 792 65 521
8390 0.099630155920784197 -0.66620553890335554 5.7691430782276143 204 197 189 0.28978254446635665 57 1000 63 784 65 530
8389 0.69801588833670702 -0.55189379066540256 4.895334957590685 75 84 66 0.014458008617054874 57 869 63 776
8388 -5.1052226057069436 0.51742636222425431 6.216668169625291 180 169 149 1.1055107233004218 53 981 63 758
8386 0.58098555262660501 -0.3487359502399322 5.2652520851106068 223 223 225 2.030348896742963 55 1088 63 748 64 196
8385 -0.10237859693023674 -0.11489453723050615 5.0066682703152168 165 157 148 1.0751568414084858 57 794 60 1597 63 741 61 1644
8384 -0.94234423720264238 -0.0050203783379626542 5.8271991499444242 162 153 146 1.641553149513548 56 621 60 1295 63 739 65 462 62 364 67 283
8382 0.17849184704085921 -0.39388237045208507 5.6790772212208323 177 168 151 0.17506177384107707 57 887 63 702 56 1044 65 719
8381 -0.020143320444461321 -0.31968645931588358 5.2456967701919668 122 117 45 1.6344337469697887 56 1053 57 841 60 1224 61 1338 63 693 56 1050 57 895 65 711 65 714 64 875 62 861 66 564
8380 0.23427441373965616 -0.76288583300113966 5.5295373815222657 245 241 230 1.3669569938625914 56 1181 60 1367 63 692
8379 0.026090663701124617 -0.87104827822113462 5.7820783177666799 238 229 220 1.5024012907909343 57 1088 63 673 67 161
8378 -1.1411395364260675 -0.90326306777018783 7.4566547373135652 239 230 222 1.5212288252725683 56 1138 57 737 63 651 64 520
8377 -1.0589361435398634 -2.2575498501596787 5.0489221758263261 193 192 194 0.63395614429105018 56 1440 63 625
8375 0.73810675167062711 -0.8922093338409014 5.2445676908471608 239 219 194 1.3640547058467976 60 1461 63 608 65 329
8373 0.57187285275388366 -0.91029818297003773 5.1700858826650578 196 175 139 1.0856066593979905 56 975 63 598 65 585
8372 1.4476928032498249 0.18218048196445896 5.1666579045669252 157 157 158 2.2923146251364885 60 535 63 567
8371 -1.6033917558937734 -1.3059882854558766 5.5238836850028976 136 138 147 0.76485326246133534 56 743 57 562 60 797 61 791 63 548 65 516
8370 -1.6665432008547727 -0.8395918619426318 3.3018411726846786 254 251 254 0.83498882000908825 45 561 48 610 63 543 65 613 64 617 62 625 67 623 72 242
8369 0.58502276678407727 -0.95806119331809381 5.5133295616425482 192 169 139 0.35703683598156633 57 547 63 524 65 326
8368 -0.041290386350797431 -0.233776528394428 5.3780108917907672 109 107 95 1.7180616115724792 56 1123 60 1321 61 1331 63 521 57 508 63 517 65 468 65 644
8367 0.091424265765357268 -0.33125202691177869 5.3515804778156033 134 128 35 0.51813572936565566 61 1369 63 511 64 869 62 465 67 399
8366 0.15720805327003909 -0.37679765004780996 5.833290509629296 178 179 173 1.6299156051615207 56 1047 57 883 63 510 65 444 67 873
8364 1.3982189929779236 -1.3486842754068471 4.8432499888582248 140 151 168 0.1525794427305871 59 1766 63 501
8363 -0.45066596379566615 0.023870031856713048 5.3353588438405062 171 173 186 1.5482664074664563 56 677 57 839 60 1567 63 494 65 344
8362 1.4482512405311403 -0.18923149353166452 5.0640449769604414 73 79 88 0.39692390290188928 57 713 63 468
8361 -1.4715250756687523 0.81592935546244316 5.793708113289286 172 172 172 0.31165534222333524 56 1266 57 518 63 464 65 395
8360 1.7666009508637182 -0.17820094494901856 5.330970132111756 76 77 81 0.16962001374736246 57 1012 63 460
8359 1.0068960465418582 -0.62948498279715159 4.8850018807660955 61 92 77 0.41737557421338661 57 975 63 450 65 298
8358 0.20822599095939981 0.087406240630792498 5.0099681915553189 64 63 69 0.88291804236310434 57 216 63 428 56 251
8357 0.68347099484064888 -0.59159080089587157 4.910089084363161 101 110 91 1.0002505538779274 56 1225 57 832 63 426 60 1720 64 391
8355 1.4329130140972792 0.20399210462789238 5.28909738762641 38 39 45 1.1985020061996057 56 1272 63 383
8354 -0.12529282208138331 0.75000349281371048 5.0630255465257994 156 147 136 0.49550596610362141 57 972 63 382 65 849
8353 0.74248448958649427 0.14169066942933872 4.9817338516420167 153 145 134 0.5050806541424161 57 420 63 367
8352 0.60610213393455514 0.165385629427207 5.1357548327816751 201 193 181 0.60074233146967149 57 1048 63 362 64 378
8351 0.80138474352411271 -0.97189260560152102 5.4044349043177906 167 152 133 0.27974543748498826 57 1083 63 354 65 231
8349 0.60350907871600679 -0.072093431011116454 4.5229282820163359 254 253 250 1.5652241559182276 57 214 63 299 65 148 64 95 63 146
8347 1.5455564540351632 -0.25632494964778119 5.2554994158634205 180 186 198 0.09813947845951157 57 348 63 297
8346 -1.9265341821407049 0.27357519059692914 3.4703308622714957 145 146 151 2.325989717485792 50 954 63 283 67 387
8345 -0.030332502467424 -0.15732215649581985 5.190693844664314 149 143 108 1.4089773151540208 60 657 63 281 65 256 62 191 66 110
8344 -2.1551061615220894 -0.29708354791234343 5.3731805769331391 61 60 65 0.55792580800355251 52 425 56 216 57 168 60 110 63 278 65 155 64 153 62 136 67 140
8342 1.7588407618572059 -0.69166798640896965 5.0279519681652705 140 146 161 0.060762549385886461 60 1334 63 224
8340 0.25914865263346554 -0.85900695444837061 4.8230554084216175 179 181 183 0.54181679026312246 60 262 63 211
8338 0.56717641065494651 -0.095814842441688641 4.5772293737419147 75 68 61 0.33909242136219003 61 757 63 183 64 93 57 213
8337 -0.61777962876390102 -0.31774368263588498 4.992439673764304 167 161 159 1.7562174228390883 59 227 60 173 63 167
8336 1.2994743234153798 -0.30595894743834329 4.6668472523266322 0 0 0 0.69421284762913049 56 637 60 1284
8335 -0.13695969585616816 -1.0838826555100916 5.8434476997740337 180 188 199 0.52742008776153604 60 908 64 581
8334 -1.6372617243845893 -0.9509255991999862 3.3330795487679383 168 161 155 1.8842296130473863 50 216 63 112 65 221
8333 -3.3633323693923702 -2.8315998616822373 4.993109862334868 166 167 162 2.008065189231099 56 289 63 108 65 191
8332 1.618277417448412 0.034268018352645424 5.1511089923290676 49 54 64 0.76567605706484887 57 134 63 104
8331 0.062151183960550471 -0.50037803855746965 5.3580778829757163 194 183 180 1.1896081560504301 57 182 60 1408 63 99 56 841 57 369 61 1295 65 124 51 815 49 751
8329 -1.3198797722098656 -1.0803944175226738 5.7246094259151654 184 183 197 0.3600929793995597 58 52 63 59 67 50
8326 1.0298796797636942 -0.31332076199253384 5.5533904284138709 180 188 201 0.43694914073735114 50 147 63 40
8325 0.95245726992586699 -0.24232126150078864 4.9682881886282795 201 212 240 0.5415550983841837 57 21 63 26 65 18 64 18
8324 0.43445862587861717 -0.68552996557274493 5.0241030262569968 227 219 211 1.3257226288352459 56 6 57 5 58 13 59 18 65 3 63 2 64 0
8322 1.2357195315019052 -1.6700544719395094 4.1726153876011356 68 68 70 1.4853136082218001 46 822 53 777 45 494 50 622 51 583
8321 3.8178680470071806 0.22340398446140847 4.1360302483674012 37 39 38 2.4103805600608106 51 564 45 704
8320 2.1818519723019394 0.65570897335533007 3.9652212382218108 0 0 0 1.7772395521930513 43 1039 54 587 44 1084
8319 2.6340889042290052 -1.686936613390903 3.7208391413709547 165 168 175 1.3340224927142506 46 629 45 320
8318 0.76282243993961685 0.19442286731685832 2.4095119013370141 114 114 116 3.2052037133800915 50 36 45 116
8317 -1.8854067431768518 -1.0861835954678938 3.028574471821468 45 50 56 1.1507276775312412 49 108 45 91
8316 -2.1953737019893245 -1.4640754955033195 4.7734533142631577 154 160 172 0.46827156831901229 48 4 45 8
8315 2.9736479387760064 0.22056474233402054 3.6460354233910031 181 179 179 0.89159481485489533 33 151 37 114 38 111 40 104 45 52 41 73 42 75 43 78 44 69 47 57 46 66 48 60 50 24 51 36 53 36 54 26
8314 -3.5746021490074891 -0.78212111782214755 6.7569443893241212 56 72 90 2.1302297908994898 41 830 44 924 45 294 43 461 44 925 47 303 49 216 51 828 48 280
8313 1.8034277516840374 1.1229885762043443 4.2329102517517843 161 162 169 2.2690416862322254 50 330 45 669 50 495 51 339 53 679
8312 -1.1080007006348838 -0.34441215275761583 5.7168404773723056 159 157 156 2.1490748384015776 49 479 48 668 50 344 51 449 51 1036 54 183 52 188 55 152 55 1000 58 110 61 141 59 134 60 104 56 113 45 628 50 983 52 946 53 1014 55 996 58 1157 61 1231 57 863 59 530 63 101 63 793 65 84
8311 2.6982445242088215 -1.5838619917329413 3.5403368683516847 129 130 135 1.1701837553432359 47 781 45 747 48 904 53 317
8310 -4.4180219232787126 -0.89923106206985426 7.4203232347723524 7 18 16 1.73840937069205 49 734 48 763 46 978 50 813 45 553 48 767 51 774 45 557 89 69 79 242 78 174 80 207 77 214
8309 1.3265335440260952 -1.6870959317962684 4.1976271760931594 79 81 86 1.3399206324267152 52 333 55 242 48 628 51 718 53 768
8308 3.0782376197981565 1.1504704906828753 3.8435349565854109 173 167 164 1.9110174928494357 43 348 44 350 49 394 48 336 36 998 37 963 42 862 33 210 41 697 46 413 49 600 45 353 45 412 42 856 44 426
8307 -3.852839175960193 -1.0687189015224359 7.0399823282703426 211 237 252 1.3512529901342589 47 592 49 617 45 98 49 77 48 155
8306 -4.0348261653250219 -0.64002550677236869 7.316345476557875 189 192 201 2.1281336744020183 43 212 47 169 44 204 49 496 48 754 50 691 45 437 45 643 39 99 44 936 46 952 41 307
8305 2.6621515386291472 1.2714041166087284 3.8539929839159082 103 102 115 1.6974068531224049 40 913 42 867 43 1006 46 1114 45 466 31 974 42 433 44 424
8304 -4.2056641769900942 -0.94311361580083297 7.3959706544459767 202 221 242 1.3278541504963901 32 631 47 879 33 544 45 550 44 870 49 744 48 768 86 138 78 169 89 104 85 167 84 156 83 160 82 154 46 977 81 159 79 241 80 261
8303 -3.342604909053918 0.51453456309443435 6.0011139237133548 69 65 55 1.1473438147740269 45 483 48 838 49 1159 50 858 51 1009 53 1176 54 1184
8302 4.0496613530086787 -0.072901849561284163 3.9819025302222131 179 167 151 2.0676913701097801 44 1099 50 994 51 991 53 1148 45 385 48 436 50 835 51 451 53 464
8301 0.46618905083834383 0.31048861550149559 4.7534576950231786 85 88 93 0.65374191605241616 56 417 57 192 43 398 61 502 60 329 59 526
8299 -0.18968498656998092 -0.22337897116245486 5.2583462185007663 102 96 87 1.7586272781779619 46 1006 48 452 50 418 51 347 53 273 54 255 55 203 45 604 41 765 43 756 47 963 46 1001
8298 3.6607287729777012 -0.086953645432853471 3.9228664514499649 158 145 127 1.2215979474823873 39 418 44 361 46 928 49 1152 45 611 48 839 51 1014 53 1145
8297 0.49922097321041037 0.1261905505515514 4.8372391671352428 142 150 160 1.9938883851771625 38 723 39 926 41 378 47 573 46 545 46 861 37 353 49 1135 50 290 45 608 48 843 50 957
8296 -1.6572822826615474 0.27423347735530501 5.6780808480846359 153 160 173 2.0684505086308569 41 291 47 145 45 152 48 151 50 129 51 141 53 132 57 321 53 969 55 1398 58 1622 59 355 61 598 60 623 46 870 63 397 65 257
8295 -1.7511591903035426 -2.6866283789295187 5.0445648374043248 42 43 42 0.2212838005720463 51 207 52 161 54 204 55 212 53 216 58 108
8294 -0.65460230573893163 -2.8587645434226614 5.1323371904054822 234 226 205 1.1830872229744986 24 319 26 311 27 309 25 335 46 361 45 462 53 816 54 535 52 833
8293 3.7172162010558547 -3.8500496628337939 9.1044306135308233 0 0 0 2.4732457032392419 46 627 56 878
8292 2.9367469823009662 -1.7194455113724072 3.455735764539142 133 130 126 1.3223831584698562 50 546 51 688 45 739
8291 2.4959939853334117 0.24689311192659127 3.5275469906550643 177 182 188 0.82448154015356989 52 295 45 731
8289 3.1078366246091864 0.20730776918545207 3.44298150700032 171 170 178 0.50028158850798343 53 349 45 728
8287 1.8468994696461654 -0.50849210414994439 3.9230923750315574 0 0 0 0.39404044937089522 57 579 60 1441
8284 2.5017670874949638 1.1715631698983806 3.7260559000652234 143 146 162 0.669148675824212 44 427 48 533 43 948 45 699
8283 1.1417834292945854 1.7974088431267314 4.5080853486214041 29 30 34 1.9850613514025213 47 636 45 695
8282 0.57266179267612705 0.38216011236894615 2.1143442056857178 15 16 10 0.25417120075835331 49 1068 45 693
8281 0.23442128161243339 0.4692150718119002 2.5204183701866381 76 77 72 0.42351547132425743 49 1063 50 568 45 680
8280 0.29713913528927388 0.3766100867984169 1.8169667560356764 121 117 116 0.36470943930303379 49 1038 45 677
8279 3.6743135594976777 0.75300224068807886 3.4302952356219274 195 194 192 0.32055774303818885 46 1081 47 991 49 1019 50 531 45 673
8276 -1.3932379888365523 -0.40702378554434693 6.1213118804566102 211 206 204 0.56015592070097686 47 465 59 697 61 652 58 1158 64 701
8275 2.3853639908117046 -0.062199602330018332 3.7394169637753523 4 6 3 2.3990373521700823 55 185 45 617
8273 -5.5271072088305804 -1.4427132434607135 7.4598660485084913 145 139 122 0.10161220918405343 48 504 50 504 45 579
8271 -1.7244799517176002 -0.84469983066454557 2.7784571007480072 61 61 61 0.097556596452987879 49 915 45 574
8270 -3.1334435693447582 -1.5814233933647943 6.1273721138452109 165 179 208 1.5003165542830337 46 653 47 208 48 605 45 567
8269 -1.9310419356496751 -0.66302902075354331 5.2119392423458715 123 130 140 1.5237698597399127 46 976 49 740 51 826 45 555 65 667
8265 1.7537717281230603 -0.89565592573339647 5.0744941449125207 122 133 151 0.31025646450542954 50 766 51 792 45 542
8264 -1.5387364883023673 -0.57566055202608124 3.3375387868470052 117 110 92 0.85586802716799903 40 819 45 537
8263 1.025777694921993 -0.97043825105037695 5.2584167203779106 165 180 200 0.66429783730977221 56 345 57 190 60 313 61 284 63 89 65 103
8262 2.1060759712190884 -1.9638741124269943 4.5516290614884127 0 0 0 1.9530419853516952 44 272 55 842
8261 2.8488689335425987 -1.6700401199315456 3.3838390603708368 120 120 121 0.63371181780799468 48 591 51 499 45 519
8259 2.560141601730066 -1.2699961303604395 4.3419780022314312 89 92 97 0.24506994223746381 51 854 45 503 53 744
8255 1.6556478952018348 -1.9531520297269245 4.3304750281334519 0 0 0 1.1400695641642273 35 646 52 138
8252 2.5976028624388734 -1.5471045694004584 3.5569113815381943 171 172 173 1.4265214368754113 43 1043 50 422 45 467
8251 -2.8969308408033276 -0.2452751956767372 4.2088323713591604 0 0 0 0.36010106267066527 46 50 50 340
8250 -3.8895327231137609 -3.7592888446277466 6.4946770125849413 162 156 156 0.60889617877117186 50 300 45 463
8249 -5.4159855292138559 -1.4582766107408023 7.522110457683584 152 152 155 0.080234459513930378 48 521 50 469 45 436
8248 1.6548519547382372 -0.58055776822496541 5.1189381518238477 31 31 41 0.39288202119669347 56 111 57 89 63 50
8247 -1.5185341847390048 -0.65131422790496452 2.5992740887377952 0 0 0 1.4663846197141222 40 838 42 1022 46 592
8246 1.2255066724102295 -0.42425636871192668 1.2274521351106777 0 0 0 0.74249854567610907 40 847 49 209 39 687
8245 -3.3872093402043326 -2.3386062221371291 8.0386942265605761 0 0 0 1.7002903974332202 43 241 59 1163 41 245
8244 9.3666409695256068 3.8308193809283697 13.617771311596151 0 0 0 0.41032405187919641 38 593 52 1376
8243 2.9763444007736908 -0.17149754507675793 4.6566082442468 141 141 141 1.9799893083214297 27 717 61 72 45 377 35 425 36 487 37 556
8242 -1.2833882408464155 -0.24172471633801257 6.1838739340501245 151 152 147 0.3865076485978276 41 770 49 338 45 373 48 261
8241 2.220730081861221 -0.44957418121415532 4.8112255331865157 0 0 0 0.074042735630644785 56 46 60 61
8240 4.0764343864948502 0.79815695687181198 3.3881458499524446 141 142 137 0.42120969602062108 44 990 45 352
8239 3.2446195123736588 0.75062216974947105 3.5935493083922769 147 145 146 0.88130120047753646 44 945 47 512 45 347
8238 3.9555589660870152 0.33995204558351388 3.3018340203394532 152 151 149 1.9303210768655881 43 430 47 484 45 345
8237 -1.5599402804881035 0.5540447240318418 3.8016123080382327 26 22 20 0.85949747283626676 50 168 45 339
8235 -6.9722382181419418 0.80006252689747104 6.8556156301854054 87 82 78 0.94085239626261719 57 784 45 330 65 728 66 743 72 331 71 313 70 326 74 320 75 330 76 471 86 350 89 295 85 420 83 348 81 395 80 608 79 368 77 351 90 137
8234 1.2869346619316484 0.08809248897403596 4.3852533348991178 141 146 158 1.7938573885620801 55 186 59 1556 45 329
8233 -5.0058988365509292 -1.5789191659281758 7.6599072221036444 111 109 112 0.52594443598710383 46 178 53 335 45 326 49 179
8232 -2.9119557280074115 -1.2405143833399146 3.9496312248626926 0 0 0 0.23405760088746402 48 335 49 585
8229 -0.8611686114470416 -1.8515165199722683 2.9479995248302049 0 0 0 0.59085383536887592 47 1139 49 362
8228 -2.9204595483081852 -0.53958337170468496 5.6054213803337456 0 0 0 1.2912105728394603 44 935 46 950 47 167
8226 -5.1354219344638619 3.4548420104393296 16.595572870441476 110 109 107 0.81594693382500894 60 1490 45 271
8225 -2.0839716809189275 0.45270923143316855 4.9631548456909966 42 41 37 1.3104060882016888 37 869 48 345 45 256
8224 -14.191256454206211 4.6709324322455181 26.59198987590354 107 107 105 0.07130668623594176 61 1567 45 253
8223 -3.4727519332050623 5.6510525814174271 22.857883013001416 125 125 124 0.71221641881453146 61 1629 45 246
8222 -4.6270618205759959 -2.121281656543641 7.5467988208533603 155 164 193 0.54144422337190434 47 241 45 242 44 224
8221 -4.2692984809491117 -0.72550909032687227 4.3325814603157662 53 53 53 0.18578780648102369 49 379 45 238
8220 -2.9989266505811467 0.12276106520790232 4.2118951614224089 3 7 10 0.68286947928733988 51 173 45 205
8219 3.9312476230847042 -0.73582943039381654 4.0093786330258201 154 139 111 1.0829339946786807 48 413 51 98 51 269 50 87 45 201
8218 0.42407482205224911 0.41265376273370358 2.3612877339350522 14 14 11 0.13252360006071962 51 124 45 182
8217 -9.3614268215272372 3.328614199319095 7.3575255351199713 140 119 75 0.46585000535921178 46 485 45 179
8216 -2.0439239014303916 -0.046905670461994446 3.4681145439614407 5 4 7 0.44539555580578127 50 135 45 164
8215 -2.8729208539430018 -0.02417471343854035 6.2490822520993747 0 0 0 0.64596879828346099 44 465 49 91
8214 0.18418485385849068 0.35127554363946917 2.4831898628202156 0 0 0 0.23575580467372026 49 180 51 92
8212 2.7235815008982267 -0.23968091212838027 4.6255320408806284 0 0 0 0.58870670885764986 60 10 61 20
8211 -6.5839773417145944 0.8395951959753879 7.4605552223645359 3 5 3 1.5634915892252852 46 292 45 100
8210 -3.1588560010978215 0.71930731080130705 5.8444703761376449 20 20 8 0.42485681794571295 48 62 45 82
8209 0.45060232955080215 -2.7602764149139749 4.7566178276361564 213 208 168 1.4153183616823424 46 87 47 143 49 88 48 95 45 74
8208 -5.4673995849999164 0.084870166336045577 7.1133407412776766 44 44 53 1.8551566387038383 47 49 45 65
8207 -1.1745311189753445 -0.022824040605029197 2.9040277383217523 0 0 0 0.93414375915088854 49 44 50 44
8206 1.6407441559983165 1.2638539014237271 3.9579420752372214 25 26 28 1.2198077415930928 48 18 45 57
8205 -0.29932076438016275 -1.116702777428519 5.2267179595299824 0 0 0 0.96518953365147664 52 23 55 26
8204 2.8872572943385513 0.069399804386689787 3.8061060855900748 0 0 0 1.0368391339173235 52 4 55 3
8202 1.9254470073006427 -0.061515712997902379 1.4481780921325684 0 0 0 1.7123611679913684 41 7 43 16
8200 -1.8071208656071132 1.1502935495672839 5.6616709192325683 95 88 84 1.8077732280264607 53 1119 61 1141 56 1245 53 1244 61 917 60 1123 63 886
8199 2.0473589292364127 -0.2816500968860618 4.9040341141465928 61 68 80 2.2157802942975757 55 1391 59 570 58 1564 60 630 56 249 60 399 57 150 58 1577 61 1653 56 701 60 1693 57 474
8197 1.7179101187301977 -0.0045423323629802384 5.1086593840534347 31 34 48 1.196524657227884 61 1561 56 674 57 424 59 1477 60 721 63 178
8196 1.7116209559207076 -0.45757960076845822 5.0717051901331134 113 120 140 1.9272645840108886 61 1347 56 601 57 446 61 1261 60 1219 56 610 63 396
8195 1.7210195641949613 -0.36822396145089115 4.9856413307219274 97 106 124 1.5110752131358496 60 1327 56 622 57 455 59 1746 61 1308 60 1315 56 565
8194 -3.8242505499447481 -0.040543212958546467 6.1041522657323064 83 75 56 1.7710701995408002 52 187 55 188 58 188 59 327 61 320 60 342 57 580 57 582 51 1072 58 659 59 1755 61 622 60 666 56 571 63 432 63 454 65 402 65 411 64 438 64 703 62 441 62 699 67 443 66 417 68 353 72 791 68 842 73 813 70 811 69 141 71 128 71 559 74 112 75 136 76 85 76 514 86 240 89 160 80 83 82 406 77 87 77 352 88 220 87 78 79 53
8193 0.97479611534512012 -0.81769231854941249 4.9361172334415242 245 231 216 1.8239619040485522 54 1038 55 1144 58 1273 61 898 60 859 60 1636 56 956 55 1148 57 557 63 609
8192 -2.3925280502571415 0.45734762653336891 5.6064323970494447 10 9 10 1.3445776904873639 53 1151 54 452 55 1218 57 816 63 920 65 918 71 223
8191 1.6442218537421387 -0.60764185491844003 5.0956760637603997 107 114 131 1.5459825873475099 43 1060 48 757 56 1201 59 1796 57 852 59 1187 61 1465
8190 -1.1774535336034049 -0.77579106385652608 5.8862567596557058 164 159 154 0.80973420739412627 52 543 56 466 58 1683 57 410 63 436 65 498 64 303 62 768 67 250 70 79
8189 0.15789049053406354 0.31925565480247103 4.8901168482222186 141 147 162 1.0899779230193247 56 373 60 531 48 872 50 844 51 990 53 573 54 1156 52 1213 55 1321 58 1442 59 1557 61 895 60 1484 56 648 57 347 45 718 65 346
8188 1.8409344197962174 -0.52060553339983362 4.9488510966840114 82 84 102 1.8338932438576399 59 1303 61 1285 60 1242 56 572 57 375 60 625 61 1292 56 316
8187 2.1656175008409306 -0.38971500825840139 4.8669787151821753 83 86 99 1.8911953012933569 58 1221 59 1651 61 1303 60 641 56 593 57 325 60 672 56 684 57 458
8186 -2.5502464899040245 0.65914892804086667 5.6260368397907605 33 30 16 1.0097872865032822 60 384 57 488 63 902 64 877 67 512
8184 1.9816988094151535 0.063747356157592874 5.0207996846554375 26 29 34 0.87821253274864941 58 899 56 1280 57 314 59 611 61 957 60 534 56 550
8183 1.9980011229908998 -0.77022533235723945 4.8683122758603998 158 174 193 1.1419625481590914 55 657 59 415 61 432 60 255 57 187 59 1460 61 1383
8182 1.9028474771356376 0.21919668734372091 5.0146802560583614 116 113 122 2.1648944070772327 56 1254 57 1075
8179 1.0703303062047436 0.14129897380528939 5.1480817082350994 41 43 40 2.1319162187930747 56 1258 57 1066 63 858 65 855
8178 -4.369398050757038 -3.518770574928852 5.6390325112164126 106 106 108 0.61844022724367054 52 656 55 621 57 1050
8177 1.7035224685041028 -0.10309030440029296 5.1554003654062672 21 24 29 0.4450293846979218 56 1453 57 1041 63 885
8176 2.0519590174255984 -0.17985381262904199 4.9231943172258168 9 14 8 0.34812856350287358 56 1389 57 1032
8175 0.54096557721722427 0.21846602013101091 5.4699364344325971 167 158 149 1.6448277435470668 56 1376 63 361
8174 2.186033290156276 -0.31442821384293795 4.9311414488863852 92 94 93 0.28250958498663847 60 754 57 1009
8173 0.41804133808359778 0.1343458062160259 4.8815906297160669 168 175 193 1.2603321101183071 56 1368 57 1001 63 980
8172 0.75014610331088649 0.52452763057144658 5.5067353680701903 61 66 84 1.3421605743946172 60 1454 57 980 63 563
8171 1.6293165289394269 0.35541197133588714 5.4586867322711594 37 34 29 1.4912009809041371 56 1243 57 966
8170 1.2476349052281672 0.10103479894484134 5.076566834806882 66 70 81 0.93118801162684639 56 1261 57 940 63 946
8169 0.53786487183343223 0.27899952393758454 5.1532672519506502 51 55 75 1.9822115919230139 56 1263 57 936 63 881
8167 -2.2921018853075399 -0.12118294933686707 5.4633387432124829 104 99 96 0.33430991278734656 54 1235 57 915 63 714 73 330 68 662 72 356 75 185 76 126
8166 0.14490676361830399 -0.45327522457501246 5.8377905678376294 213 207 207 0.69728020019917158 56 1083 57 911 63 720 67 958
8165 -1.1383188804383004 -0.354746860448516 5.9454732783274258 180 174 161 1.2112241582212349 58 1248 57 905 63 974 65 677 64 395 62 284 67 247 66 293 68 125 73 119 72 61
8164 0.88892847802074326 -0.41780342793253272 4.9571089166358195 178 193 226 0.71210166951246301 56 1045 57 897 63 513 65 309 64 249
8163 0.23243827320485147 -0.38813541450625616 5.7699111705553392 211 212 208 0.59306048730209482 60 1221 57 896 55 493 63 699 65 647
8162 -1.6996204901559768 -0.31470731019051329 5.6766721479822113 194 192 193 0.80036668170994252 59 1311 57 858 60 1264 61 1254 56 845 63 797 65 391 62 704 67 496 66 406 68 371 73 302 72 236 70 209 69 73 71 78 74 82
8161 0.82582511946013626 -0.57161885665335133 4.8485909363520259 51 80 67 0.44485382596545636 56 1232 60 1436 57 857 63 423
8160 1.6612191668086629 -0.32741382560569116 5.097101155846973 39 46 65 1.5222259314181859 60 1691 57 848 63 451 63 544
8159 -0.1497244339167273 -0.038517816955677582 4.8607981261619004 163 168 174 1.6296949708641491 60 1574 57 838 63 914 59 1690 65 885 62 361
8158 1.6275500690260341 -0.20891592344608709 5.0444857191975743 1 1 13 0.044067841833296324 56 1359 57 830
8157 1.5952598389974713 -0.2174465340841597 5.1559300655745384 140 144 155 0.52552638301938259 56 1393 57 823 63 467
8156 -6.3769300139987388 0.62413093835066091 7.2977889437985981 171 162 150 1.3139598382251634 57 812 65 733 89 191 86 246 85 308 84 295 82 281 81 266 80 277 76 264 88 162 59 1702
8155 -0.31597926842035495 -0.053278098448399792 5.0982685281203146 164 163 171 1.1491899994967949 60 1613 61 725 57 807 63 743
8154 2.1253935952057113 -0.51804320653387737 4.8422938241473696 131 129 132 1.4676533565579764 56 1049 60 703 57 805
8153 -0.073933425679784642 -0.63751901485437401 5.8249515132270018 223 220 212 0.15301265569667979 56 1229 57 796 63 761
8151 -1.9002088960708035 -0.86420269480704381 5.7187140554955489 213 206 198 0.26538767410534719 56 991 58 1294 59 1458 61 1012 57 775 63 671 66 714
8150 -1.9941853266575338 -0.83035832222680483 5.9725700918674853 220 211 205 2.2978156155301734 59 1430 57 770 67 574 62 537 68 693 73 622 72 386
8149 -0.46233258537522837 -0.63818648036175496 4.4208766169844047 194 191 202 1.3555247508792154 56 1014 62 538 68 528
8147 0.78269287141125332 -0.93628423453068121 5.2523841946045371 171 155 139 1.747090562968642 56 1026 59 1331 57 757 63 353 65 201
8146 0.88478340272834177 -0.95802098852109618 5.3630223072929883 157 159 144 0.79131685557363074 56 974 57 756 65 480
8144 0.23698919285752038 -0.70182897592678339 5.4933237017062186 235 233 219 1.1522953895276342 60 1330 57 735 63 652 65 773 62 468
8143 0.92464771911711963 -0.60920908207572499 4.3082322357088429 248 239 230 0.87247981777774397 56 1178 57 717
8142 1.8296153692603603 0.35456525391834592 5.3253945760673007 27 22 19 1.5047963701085434 56 1269 57 700
8141 -1.8294333339565936 -0.57587864017841339 5.7516099841194688 228 224 221 0.43064957485224414 58 1177 61 935 57 694 63 660 65 768 64 522 62 797 67 475 66 329 76 111
8140 1.412813395563093 0.45681356263956091 5.2292130026555981 108 108 110 1.0355374442344849 59 1559 57 668
8139 1.8265437205906778 0.30591046697390395 5.2276345824036934 198 194 193 1.4219742095207186 56 1447 57 667
8137 2.1192997986492355 -0.91951773863059971 4.7807822268995759 0 0 0 0.99830967823084982 56 1426 61 1165
8135 0.88066511910553136 -0.8619736510514947 4.9189920995487615 171 155 130 1.5055763994512952 59 1361 61 1418 57 621 63 556 60 1141
8134 1.7234849837538828 -0.091625521135588098 5.2191550905776909 74 77 84 1.2552006806139679 56 1344 61 1721 57 612 63 486
8133 0.89302143403166789 -0.68463071431484546 4.9253679293329915 56 92 78 2.4566898213918518 56 1139 57 600 63 307 53 725 65 288 64 152 64 207
8132 1.7877126535248666 -0.54924312481541404 5.1016981121782017 161 168 180 0.5315010413413459 56 643 57 588 63 759
8131 0.14070502627968862 -0.4357501434232135 5.3824840980739337 211 202 127 0.48577473353386647 56 642 59 1325 60 1256 61 1242 57 581 63 493 65 445 64 408 62 412
8130 0.79045309372750139 -1.3653535550954388 4.4591673447024052 118 118 126 0.59230648977948719 56 896 57 568 60 1002 61 816
8128 2.0825581382954717 -0.87489309802870718 4.8261209615603082 158 164 178 0.17238040723851997 60 1091 57 561
8127 0.70801697912686634 -0.77024682244170928 5.1251467998501123 235 241 228 1.1623912363995512 56 1168 60 1431 57 558 63 311 65 671 64 147
8126 -1.1723307723523677 0.50495236214678785 5.4914900597414391 173 174 179 1.7352213656211624 49 650 57 538
8125 1.5626369268275744 -0.26278493854646073 4.9168781771210481 100 103 121 0.1661872546542108 56 1268 57 527
8124 1.6621580953463764 0.097105694904197667 5.1388520184356317 53 57 68 0.35795286990787378 56 1270 57 522 63 271
8123 -1.6596332105124094 1.0602749806695571 5.8980356188355234 146 138 136 1.7106476735400653 58 1516 60 575 57 516 61 547
8122 2.0982711584865372 -0.18638808871662824 4.9318924156651445 74 76 75 0.034015460409327805 56 1347 57 511
8121 1.027231223847378 -0.28534848323158246 5.1433361161140887 145 144 151 0.15247681292230164 56 617 57 504
8120 -0.48958708352044367 -0.0090149356973559525 5.1066695650445091 162 167 172 1.0621139624401676 61 1663 57 500
8118 1.99868100950873 -0.28779181919839603 4.9197241799665079 39 44 50 0.86836408577158208 56 696 60 1622 57 471
8116 1.7288636511930378 -0.029987405707335144 5.1494426382699467 67 71 82 0.63056291859371949 60 1698 57 423 63 376
8115 0.74228646934769105 0.21623584276329622 5.0794665863451716 129 126 123 1.2008518568550954 57 422 63 358
8114 1.795610425916716 -0.10320187088572934 5.1602979230165529 6 8 7 0.70553604171519613 56 1346 57 419 63 374
8111 0.68939592214437195 -0.92044672839978137 5.1881515985081661 164 149 125 1.2582152602819527 56 1025 59 1332 61 1415 57 401 63 252 63 597 65 539 60 1137
8110 1.5374247453979795 -1.5469580877545479 4.8354530343857514 127 130 137 0.45376166037617138 59 1026 61 1029 57 389
8109 1.0847667772239449 -0.58613459968703674 4.972325226460371 37 54 44 0.24430557665421795 56 459 57 363 63 194 65 208
8105 1.1696093077474412 0.13041565363581661 5.1310253174929485 187 188 192 0.32531104495316421 58 122 57 345
8104 1.9810754853789052 -0.28519660541156089 4.9312909995274765 86 90 99 0.24211697691410772 56 697 57 329
8102 -0.048365101035437924 -0.16243936258455066 5.3746430921342068 159 150 109 0.51482464535241645 59 328 57 261 62 146
8101 -1.5186903599594057 -0.058503118949717027 5.715002854784581 166 166 177 1.4098317830314162 60 643 61 646 57 258 63 235 62 864 67 697
8100 -0.087265998238186704 -0.2838432508466876 5.5033186125560372 86 81 64 0.40631195729523811 56 426 59 338 60 376 61 321 57 255
8099 -6.9404025590371372 0.46067507472153835 7.3607170269225417 176 168 157 1.8293896238731271 49 163 53 550 57 254 83 220 75 300
8098 2.0749141699052593 -1.3823563021607266 4.7759830224763071 116 129 146 0.60688529247517387 55 976 57 234
8097 2.0053728718033161 -0.60016157903363609 4.9640087753189883 175 175 188 0.61776208822242351 60 1398 57 230
8096 1.2853748371007985 -0.25814243307388401 5.1223129913041472 129 131 144 0.52687030481711572 55 562 59 751 60 637 57 210
8095 1.8968259940523418 0.021238886801330646 5.0541159330334207 12 13 18 0.1904090131228752 55 1260 58 1452 57 197
8093 0.044356816471550937 -0.41659939988414091 5.8808866498451851 185 172 166 0.78323281186536198 56 115 60 102 57 180 59 202 58 319 63 164
8092 1.7516330506164906 -0.34566405996116994 5.0643229054940502 41 48 67 0.35904984907818421 56 404 57 176 63 87
8091 1.8888308224151105 -0.50405316992501825 4.9765325968923628 26 29 44 1.1154099643999111 54 973 57 165
8090 -0.81544594112751734 -0.30968941523978583 5.2772956101201984 167 162 156 0.79162686881966959 55 211 57 118
8089 1.6466884753382292 -0.004772881410130372 4.7418129291600266 51 57 69 0.86284571464980819 53 140 57 104 50 179 51 139 45 248
8088 -2.5869830947708023 -0.2011701402816031 5.6325372477598288 77 72 68 1.3294415202259484 56 71 61 50 57 90 63 72 65 82 62 47 66 52 68 51 73 47 72 32 71 4 74 6 75 1 76 1
8087 0.75584624990326721 0.11298593490985855 5.0742608725473461 133 128 125 2.2183894311188705 56 105 61 867 57 56 63 43 65 46
8086 0.97690983248070495 -0.38425834158937977 5.2627334993867567 168 172 186 0.095515256547172939 54 156 57 45
8085 2.1103934174879408 0.073636943784773701 4.9669020435103413 10 11 13 0.024817673422556943 56 59 57 39
8084 1.7202152640788764 -0.072738915058792389 5.1237085168899146 7 10 22 0.57232540442183699 58 113 57 36
8083 -1.4129423751363941 0.83370880073124887 5.6313935972111038 114 112 114 1.4162559046831016 50 875 51 593 54 669 52 887 55 757 59 1569 61 1610 60 1503 56 372 59 295 61 361 60 330 57 421 63 359 65 340 64 362 64 646 62 565
8082 -3.5521114822673931 0.66928555360265263 6.2561805056484108 70 68 52 2.1937676103317583 52 433 58 452 59 492 56 1358 47 530 61 593
8081 -0.73037748552726101 -0.3692128333033024 5.758921148443263 36 31 33 2.3153029233326761 55 1474 59 1257 60 1214 56 1088 27 1187 47 902 49 1250 48 667 51 1057 39 398 47 1170 46 1203 40 861 49 706 48 676 50 751 53 993 54 931 54 940 53 1016 52 494 52 575 55 482 55 490 58 508 58 559 59 540 59 554 61 574 61 578 61 1352 60 436 56 319 56 573 57 245 57 372 57 611 45 626 45 658 63 229 63 321 65 359 65 365 65 685 64 400 62 400 67 303 60 263 66 206 68 174 73 112
8080 1.8094062889237821 0.051089555245364078 5.1391006514192847 46 50 58 0.63643565623287734 55 1444 58 869 59 803 61 956 60 544 56 514 57 195 63 138
8079 2.4897274634868873 -0.81266163683407799 4.6638831154343716 144 148 160 1.7355242333654151 59 1328 60 413 56 344 58 1326 61 1409 60 409
8077 -2.3760938994392604 0.57757558452845048 5.5731665460271129 73 73 60 0.7130515930314143 59 343 60 612 56 582 50 847 51 989 53 1143 54 823 52 516 55 737 58 894 61 522 57 462 63 552 65 456 64 414 62 462 67 382 66 467 68 342 73 307 72 229 70 190 69 128 71 226
8076 -2.2089927546813652 1.2703542961363579 5.4916419773470242 88 81 64 2.0011869906641011 54 617 52 735 55 907 61 1590 54 661 60 860 56 1240 53 348 54 656 55 783 60 1539 63 889 65 542 64 440 64 799 62 568 67 453 66 880
8075 1.8846715097858597 -0.039043641337580613 5.0131261863233894 50 51 58 1.4581115937771942 55 1380 59 633 52 1331 56 259 32 841 39 426 42 480 41 485 44 807 46 434 60 234 54 484 55 460 58 522 59 351 61 299 57 144
8074 -1.5590326143915327 1.0930539639469459 5.7822628974196952 29 28 39 1.5186785385190653 51 565 53 1077 54 642 52 721 55 706 56 265 51 257 54 258 55 272 60 353 57 67 63 81 65 57 64 66 62 63 67 692
8073 2.0995908266438459 -0.75568714036042073 4.8029229828925573 154 164 181 1.8439259031421384 58 794 59 414 61 431 60 256 56 1165 59 1455 61 916 52 1131 54 544
8072 1.7471655788629115 0.019126857962438085 5.0935176638292212 23 27 36 1.3727946585169462 58 1450 59 1492 61 1568 60 714 56 421 55 1259 61 718 57 193 63 135
8071 -1.2382636630261168 0.9010850578564259 5.6526370827738042 146 146 145 1.574908219736247 50 876 51 556 53 1066 54 684 52 493 55 708 58 855 58 1517 60 577 56 1424 55 1282 58 1521 59 1565 61 1612 60 1451 62 836 62 838 67 878
8070 -0.082509520382743784 -0.43473725196996532 5.4897930391209657 164 154 86 1.2552238324284803 54 444 60 1255 52 318 59 211 61 229 56 846 60 172 65 141 64 189 62 156 67 107
8069 2.0732521188642892 -0.98103523199493381 4.8102871941576684 126 142 165 0.21489437738158046 55 325 58 352 59 385 56 840 61 1103 60 895
8068 0.67077451747060901 -0.85451618184685318 5.0674800288072319 213 202 180 2.614421649276665 54 1037 58 1284 61 154 60 1447 56 959 55 218 59 235 60 1010 56 967 64 212 52 640 61 1752 46 712
8067 1.9443985906107188 -0.045314107829064323 4.9425766415028383 59 59 67 1.1341377931162862 55 1240 58 1459 59 589 56 401 61 724 60 549 57 194
8066 1.855206894314599 -0.84316284952190024 5.02426498765809 138 151 173 1.2853405397594346 48 725 50 771 51 796 53 606 50 1017 54 1040 56 340 58 1280 59 1432 61 385 60 259
8065 2.1254097562401242 -1.0020270379800817 4.7874976034954688 132 147 173 1.8363210750372612 58 1036 59 1135 61 1201 60 1187 56 494 55 875 58 798 59 389 54 1316
8064 0.15302536260928246 -0.31214863516744223 5.4476384450104769 154 144 133 0.64668746791570642 58 1206 59 1661 61 1355 56 1454 57 802 63 757 65 646 64 861 62 884
8063 2.2631906874248164 -0.69476827584319123 4.760601477885019 138 143 155 0.42079588048376143 58 1404 61 1793 56 1441
8062 -3.5279900980266339 -1.0640247892367569 5.2581167857835283 201 192 161 1.9864057597430143 48 138 65 579 64 502 62 233 65 520 64 238 62 558 64 500 67 708 66 633 68 468 68 594 73 567
8061 2.1000754648384063 -0.375868090913141 4.9365366073467456 144 147 162 1.4576583996887456 60 1690 56 1408 57 483
8060 2.1387073448429255 -0.34051027560978947 4.8673086324497552 32 35 44 0.37541017055019488 60 1433 56 1407 57 489
8059 -0.17178044087957081 -0.0099089670617409642 4.9325983916030864 164 168 179 1.3194094450169098 58 1572 59 1710 56 1404 62 456
8058 -0.28684578933526395 0.30959758181357472 5.1724237719611503 169 172 179 2.2653688161697882 38 1018 59 1604 56 1400
8057 1.8678791011812916 -0.26746367882367467 5.0016715552040658 101 103 120 0.93903057729807726 60 1614 56 1395 57 909
8056 1.5722801085865206 -0.23743871096896998 5.1484611614784672 87 94 109 1.3410270952629331 53 553 56 1381 57 484
8055 -0.34814065287139251 0.06577959950749232 5.0749683374771504 189 192 201 0.17257678569297941 60 1695 61 1822 56 1378
8054 0.26144159550462898 0.027718729159613036 4.865647417932216 168 174 184 1.4184469131122832 60 1661 61 1714 56 1357 59 1534
8053 -2.7653800989211756 0.63399987093936139 5.8470654264325548 25 22 15 0.89116334123665641 47 864 59 1578 56 1354
8052 2.3265771156893518 -0.25280580483102405 4.8020176447412108 36 35 40 0.12905185044237391 60 1655 56 1337
8049 -3.5727429188753845 1.806836207573034 5.8463155136138631 133 121 97 1.5551107837321343 60 1544 56 1249 59 949 57 917
8048 -0.9760633223128431 1.0590271845126979 5.5425636244513186 131 128 123 1.9072862155696277 55 1294 61 1588 56 1248 60 244 57 981 57 982 63 867
8047 1.0331907804368217 -0.60968559776989506 4.9355537065689479 39 69 57 1.1308244627772435 58 1188 60 1723 56 1228 57 1036 60 1429 63 300 65 206
8046 -1.1553759787821654 -0.58307546410528122 5.6950913257375388 227 221 220 0.98004134201195381 58 1176 56 1224 66 996
8045 2.0147004585423578 -0.67646180925921395 4.9284085144172485 167 175 192 0.22217990996051942 60 1347 56 1219
8044 2.0561678523765967 -0.60753750845322507 4.7305879270226363 146 150 165 1.0515364937829934 61 1449 56 1200 57 853
8043 -7.9012410575858443 -0.54621976058816946 9.2348816783974872 0 0 0 0.40137731189583986 49 27 58 1150 47 82
8042 -1.4227251280941744 -0.540855428236938 5.8959293469093987 224 218 220 0.4818100806357638 41 50 56 1190 57 813 65 755
8041 -1.3284586552014788 -0.5353809139627882 5.5927365406995708 212 208 209 1.7406619824158214 55 1173 58 1205 56 1189 66 454
8040 -0.68887430295519625 -0.72732523562338669 5.1075010442846596 241 230 225 1.4972305000581305 58 1382 56 1176 59 1412 61 1819
8039 1.0237210657448126 -0.73359794100790388 4.9236572797879967 186 193 185 1.3079890748872007 61 1398 56 1175 57 408 63 310 65 546 59 1776
8037 2.3379031159306063 -0.69595329116581861 4.7389470455482741 138 140 152 0.74612567952180742 59 1425 56 1159
8036 1.6379534294928537 -0.70861454243559407 5.062664014784465 170 180 202 1.2766145274839777 60 1379 56 1146 63 97
8035 -1.123245360695724 -0.021872999065200533 5.3707760781918994 117 121 130 0.99705767121123767 59 1721 60 1296 61 1803 56 1130 57 788 63 729 65 724 64 867 62 469 68 390 66 373 73 308 72 477 70 387
8033 -0.42021606709317272 0.020133673713197353 5.0771624260891564 84 89 94 1.3027769351757772 60 1579 61 1732 56 1113 59 1728 57 843 63 943
8032 0.43830604946406782 -0.14626356158154752 4.570535020401409 235 227 216 0.86709250413253081 53 934 60 1616 56 1105
8031 -0.68745311375076401 -0.034581357299397215 5.3706091689914643 154 154 159 1.7485681188191691 58 1588 56 1096 64 853
8028 -0.75195405520819281 -0.4384440960315093 5.393557278824904 194 194 192 1.2330365641446892 58 1147 56 1070 65 780
8027 1.8262114001503784 -0.45324061104354013 4.9703887364332973 174 182 203 0.70199098258028858 61 1348 56 1064 57 260
8026 -1.3837891012881363 -0.18713577950461896 5.5236422002562309 168 162 166 1.7086556218273203 59 1734 60 1234 56 1052 57 891 63 508 65 690 62 397 67 505 66 959 68 816 71 266 69 593
8025 0.68600454242469389 -0.57769099137630753 5.2716377869918363 14 34 31 1.3372510932702404 59 1191 56 1036 57 584 63 317 64 190
8024 1.7728612826475663 -1.295982327395385 4.8487474077666395 117 133 156 0.19353429429498381 60 1158 56 1031 57 651
8023 0.73067457863412189 -0.50500796735583542 4.9001650182803038 200 210 204 0.81555634244130815 58 619 56 1020 59 1771 57 851 63 431 65 684
8022 -1.7929872583384532 -1.2843846728080555 2.7528226074048434 163 174 192 2.2058099248635754 48 330 64 327 62 336
8021 1.1085405157595964 -0.7501121828095606 4.7987359325581211 214 205 200 0.92539106459318043 55 1104 61 1378 56 989 57 774
8020 0.33564744546375591 -0.85764866100448189 5.4828217026663051 238 229 221 1.4524401254627126 54 1053 60 1218 61 1804 56 985 57 761 64 206
8019 1.9628265339715878 -0.29069191110989295 4.9343412570676559 41 47 57 0.19601132821376357 60 1612 56 977 57 467
8017 1.5851958847172267 -1.4916222213712427 4.7268538511978093 120 128 135 1.6959016781257559 61 1030 56 907 57 690
8016 2.3288696152668678 -1.2080963852863509 4.5959468177915221 106 115 132 0.52102248969113785 60 1167 56 891 61 1168
8015 2.1703042107129717 0.045602646352424905 4.8705832759709287 22 26 29 1.2396231779352309 60 1499 56 871 57 592 56 865
8014 2.020113127062575 0.13733382456561841 5.0561012003830843 51 53 57 0.43195407546323672 61 1527 56 870 57 318
8013 2.0868655629438195 -0.052089703142516403 4.9919861734415791 12 13 15 1.0012156929545306 61 1806 56 867 57 930
8012 2.0022258228657916 -0.031027542442450422 5.022142956720157 9 10 14 0.26280450639357622 60 1641 56 855 57 521
8010 -0.53681823685959862 -0.83659478787157071 4.8610172044448401 0 0 0 0.30222372200053144 58 1339 60 1132
8009 2.5107381339254342 -0.80702922332751725 4.7213522824232079 157 163 175 0.4609163587038978 58 1325 56 807
8008 0.80570548234502537 -0.88709618330283158 5.1839060988569257 187 164 148 1.472520056768738 58 1328 59 1758 60 1153 61 1407 56 800 57 548 63 525 65 316 64 208
8007 -2.0432812250361159 -1.0046918930295408 5.4441869368031748 183 185 198 1.0978488438721394 58 219 56 783 63 542 67 545
8006 1.8550075661563457 -0.6771988134253355 4.9351453185162235 145 156 174 0.45929988780118436 60 1339 61 871 56 782 57 615
8005 2.3143574398315421 -1.3880573079198391 4.6699889486194373 85 89 96 0.36789479499752231 61 1794 56 737
8004 1.4699529423066267 -1.6057695157956244 4.8660237566222353 86 90 102 1.30009808417402 58 953 56 734 57 386
8003 1.9038361680420024 -1.0367419573610666 4.9578323869329202 150 166 192 1.3781575670346182 54 984 60 1183 56 728
8002 -1.8949827316166377 -1.6374930947970057 5.2204645265916207 189 193 204 1.9436095129323809 53 896 56 720 60 942 67 353
8001 1.6670599645193893 -1.3394636981865087 4.975918860695387 118 135 160 0.16809986143488956 60 1156 56 703 63 633
8000 2.1753266652421619 -0.32661328586836585 4.9325452838228889 35 35 45 1.1946626727436767 54 1194 60 1602 56 692 57 491
7998 2.0660707002116965 -0.38408679238981241 4.9375345219170423 180 186 198 0.20392118447507093 60 1328 56 680 57 480
7996 1.9059772222107612 -0.16188001282387068 5.0054443988687005 32 33 37 1.7138751741213927 60 1662 56 663 57 1042
7995 1.7544133474001258 -0.11459360131204245 5.0885332352395238 8 10 15 0.71979138046886892 60 768 56 662 57 417 63 124
7993 -2.1640967209745705 -0.27857185275790403 5.4011634855563342 29 27 30 0.9090851424977574 59 1787 60 509 56 640 55 1004 57 617 64 914 67 843 66 828 68 624 72 256 73 323 70 194 71 74 74 86
7992 0.59965898819144925 -0.60328897996053787 5.5292770120277064 41 65 52 0.77983164001059524 61 1472 56 632
7991 2.0401110217005103 -0.65310355953893395 4.8882931826184297 169 174 193 0.5968313538926554 60 1420 56 630 57 867
7990 1.8605163811990209 -0.6657054808017151 5.0069512416299888 169 181 197 0.46572870543776829 60 1160 56 628 57 884
7988 1.2365792860179923 -0.30600657833839939 5.4602402270581321 168 176 197 0.21000287881555629 60 648 56 619
7987 1.002525449045595 -0.27077181054504884 5.3597536097396992 138 138 136 1.3297361072985825 60 669 61 645 56 618 57 502 63 541
7986 0.99687126807394011 -0.28739844103928847 5.4468895686390955 206 206 216 0.44653350659671343 59 752 60 1272 61 613 56 613 57 450 51 1118 53 1033 63 665 65 489
7985 -0.042977305492880619 -0.21059087000263044 5.2376512709472332 141 130 112 1.3703098601535215 59 1625 60 1112 61 1325 56 609 57 507 63 393 65 216 64 467 62 370 67 286 66 196
7984 2.0436987865565235 -0.44035806761406449 4.8909235472984669 66 68 86 0.067295310174545611 60 1237 56 608 57 503
7982 0.88748092117414512 -0.1885338459306192 5.023874042260962 212 218 250 0.64680958008749034 52 1302 56 591 65 185
7981 1.8263738312981341 -0.48741385976906576 4.9889144651338579 39 44 66 0.8947499575528961 60 1216 61 1260 56 570 57 164
7980 1.7469957087768002 0.011159423112354639 5.1795635260639941 60 64 75 0.76196242455851504 60 720 56 526 57 425 63 267
7979 -1.4299345635512191 0.79214922446430469 5.6928315353162819 146 144 137 1.7435333425115203 59 192 60 334 61 196 56 517 53 234 62 186 54 358
7978 1.959517739111154 -0.0017901813032180879 5.0104406209961123 54 57 61 0.39485444106176387 60 1644 56 513 57 431
7977 0.36138033776902301 -1.343284535507582 5.0016645647253082 0 0 0 0.54203043137269091 42 670 50 913
7976 -1.1755274952938919 -1.3042753739397035 5.2285517765884624 178 180 192 1.409302223607426 61 182 56 497 57 653 63 341
7975 2.0535044899268167 -0.26624210407298327 4.9017451430536223 97 99 111 0.3031474693289492 59 721 61 1782 56 486 57 537
7974 2.3192079282350111 -1.3396215567499377 4.675247998271777 124 133 151 0.68382967520934346 55 924 60 844 56 482
7973 1.9135824972882858 -0.60372907128150777 4.9911002442377619 179 182 201 0.24133802580364144 61 1468 56 455
7972 -1.8356877049022791 -0.32232273889131025 5.3630131575346027 212 215 222 1.1234896262342118 50 756 56 453 62 328
7971 -1.2325700176846415 -1.0857648195920901 5.265303293040632 128 130 142 0.6692495563915184 59 379 61 400 56 440 57 399 63 349 65 519 64 343 62 354 67 705 72 469
7970 1.9055220512522379 -0.82068757741050991 4.9787770129942492 144 151 173 2.0123166127584193 61 384 56 431 57 777
7969 1.6940879536385596 -0.025119417443071369 5.1714981303476195 65 70 81 0.66994909806097391 60 611 56 414 57 222 63 129
7968 -0.024947558515684906 0.4444811949345655 5.1889800496543392 155 157 167 1.4961718722498387 54 251 56 409 57 295 63 185
7967 0.62854458890081555 0.23785226515721616 4.6099944309952701 192 195 210 2.0328494452765651 41 995 56 368 65 172
7966 1.675301613040955 0.2197666609398137 5.2098037740680905 41 41 49 0.98420112288046047 56 359 57 202
7965 0.8831646678582683 -0.90581164421807392 4.8811550620651252 154 170 177 0.75399609868701034 52 718 56 348 65 102
7964 1.7657771894963703 -0.92762281197162333 5.0176994451859418 161 175 201 0.12224853891410022 60 415 56 346 57 239
7963 2.1293755346804848 -0.82761700524867376 4.7341591217965249 136 141 155 0.19758504699079385 54 1329 56 343 52 1090
7962 1.7608049734226232 -1.0211491405829141 5.0110811702901694 161 177 202 0.18581194230065781 60 311 56 321
7960 1.746814792878618 -0.51643075972747654 4.9953440095324178 170 177 193 1.1729485956062102 59 1209 56 315
7959 1.6051381628527386 -0.4971169461435942 5.1231487901069253 172 175 196 0.032319831495002602 59 1296 56 313
